ply
format ascii 1.0
element vertex 999
property float x
property float y
property float z
property uchar red
property uchar green
property uchar blue
property uchar alpha
end_header
13.299134 139.375198 267.298645 255 255 255 255
81.607353 130.354492 267.018005 255 255 255 255
419.924408 41.193897 -6.707130 255 255 255 255
88.092148 129.356705 266.858185 255 255 255 255
141.765717 122.353859 266.290375 255 255 255 255
217.418976 112.325935 265.277100 255 255 255 255
33.105572 135.985321 266.755829 255 255 255 255
176.408173 117.396919 265.996918 255 255 255 255
344.025696 50.604424 -4.698106 255 255 255 255
403.420502 42.821404 -5.544115 255 255 255 255
-161.308334 115.444687 -6.599297 255 255 255 255
1.522970 140.027618 266.884735 255 255 255 255
18.486895 138.146912 267.880707 255 255 255 255
39.743660 135.065155 267.090546 255 255 255 255
54.346722 133.046127 267.177399 255 255 255 255
92.881058 128.158051 267.563202 255 255 255 255
214.374542 112.090439 265.285522 255 255 255 255
425.586517 38.855671 -9.506092 255 255 255 255
-131.926758 111.272476 -5.477313 255 255 255 255
68.866234 131.022354 266.890900 255 255 255 255
113.512665 125.062164 266.810394 255 255 255 255
129.333511 123.037865 266.278870 255 255 255 255
182.774979 116.171974 265.743713 255 255 255 255
206.344955 113.189598 265.793213 255 255 255 255
306.295776 54.853523 -4.651958 255 255 255 255
375.956421 45.666462 -5.977967 255 255 255 255
-8.588165 140.926056 267.268280 255 255 255 255
75.311012 129.885040 267.092377 255 255 255 255
211.249054 111.905014 264.968262 255 255 255 255
315.063599 53.289211 -3.960513 255 255 255 255
348.676697 48.644993 -4.820264 255 255 255 255
397.322601 42.019634 -7.675373 255 255 255 255
59.376255 131.673141 267.391357 255 255 255 255
324.124542 51.514114 -4.876711 255 255 255 255
383.045135 43.822540 -6.121436 255 255 255 255
-170.490189 114.553993 -10.656276 255 255 255 255
-18.869823 141.495056 265.581238 255 255 255 255
-11.889859 140.687363 267.262085 255 255 255 255
96.049042 126.870323 267.386536 255 255 255 255
126.192970 122.725960 266.130890 255 255 255 255
148.154785 119.896759 266.535858 255 255 255 255
156.054138 118.806595 266.293640 255 255 255 255
369.214600 45.343204 -5.773040 255 255 255 255
416.044037 38.604218 -7.983912 255 255 255 255
102.499580 125.627548 266.597351 255 255 255 255
116.702271 123.768158 266.813690 255 255 255 255
132.486862 121.881889 266.976440 255 255 255 255
200.168671 112.557419 265.854584 255 255 255 255
319.560699 51.449863 -3.710268 255 255 255 255
355.453827 46.993172 -4.452461 255 255 255 255
-138.788651 110.833900 -4.904207 255 255 255 255
-119.652954 107.984291 -5.419337 255 255 255 255
25.002281 135.780151 267.048492 255 255 255 255
48.016209 132.581284 267.765625 255 255 255 255
62.589882 130.236816 267.011383 255 255 255 255
85.047676 127.410912 266.965149 255 255 255 255
108.800385 124.497856 266.589111 255 255 255 255
138.832657 120.639854 266.399536 255 255 255 255
330.894165 49.727047 -4.666970 255 255 255 255
121.505936 122.417587 266.596313 255 255 255 255
145.133713 119.489853 266.190918 255 255 255 255
151.477417 118.471321 266.009521 255 255 255 255
197.064285 112.515877 265.817535 255 255 255 255
220.879349 109.368683 264.627441 255 255 255 255
-1.572261 138.274261 267.125763 255 255 255 255
15.135066 136.340271 267.382996 255 255 255 255
29.969044 134.226685 266.721802 255 255 255 255
105.770851 124.408928 266.686249 255 255 255 255
135.659897 120.456566 266.695587 255 255 255 255
141.982559 119.375992 266.446808 255 255 255 255
162.474655 113.865768 248.522568 255 255 255 255
173.413925 115.526024 266.387024 255 255 255 255
189.200180 113.346283 265.546021 255 255 255 255
408.576721 38.563236 -5.869390 255 255 255 255
88.335899 126.288574 266.805450 255 255 255 255
179.743729 114.337578 266.163635 255 255 255 255
335.482452 47.891090 -4.881548 255 255 255 255
11.837976 135.985306 266.690491 255 255 255 255
20.142756 135.157623 267.051208 255 255 255 255
65.829048 129.046509 266.838837 255 255 255 255
392.811584 39.812561 -6.877119 255 255 255 255
-4.949635 138.013779 267.380829 255 255 255 255
78.722763 126.955147 266.942047 255 255 255 255
192.443634 112.167877 265.892761 255 255 255 255
308.671143 50.848141 -3.808971 255 255 255 255
-148.452316 110.041847 -4.845117 255 255 255 255
-129.363556 107.129280 -5.884947 255 255 255 255
1.866633 136.957077 267.534058 255 255 255 255
70.783234 128.002182 267.335022 255 255 255 255
93.111603 124.994278 266.865753 255 255 255 255
168.808914 115.063728 265.937500 255 255 255 255
206.679459 109.968399 265.240997 255 255 255 255
214.596237 108.944702 265.319122 255 255 255 255
376.390198 41.268665 -5.548237 255 255 255 255
388.004761 39.591858 -6.443958 255 255 255 255
54.545944 129.864136 267.168945 255 255 255 255
99.418396 123.913193 266.658173 255 255 255 255
423.309052 34.645027 -7.303949 255 255 255 255
-143.499237 108.173492 -5.177900 255 255 255 255
-16.995785 138.590759 266.529480 255 255 255 255
6.937368 135.613083 267.110992 255 255 255 255
38.281384 131.603073 266.989807 255 255 255 255
225.750671 106.507294 263.638000 255 255 255 255
326.600037 47.554035 -3.821528 255 255 255 255
360.240875 42.995304 -4.233733 255 255 255 255
-156.157898 109.247978 -6.663669 255 255 255 255
-124.351883 105.222633 -5.532802 255 255 255 255
43.318039 130.626312 267.415985 255 255 255 255
346.677155 44.499454 -3.805555 255 255 255 255
383.439728 39.296066 -6.014897 255 255 255 255
49.725273 129.175201 266.883148 255 255 255 255
110.587395 121.523056 266.282227 255 255 255 255
126.376747 119.670784 266.865906 255 255 255 255
200.414474 109.645554 265.723541 255 255 255 255
35.136497 131.442200 267.441345 255 255 255 255
176.792618 112.519318 265.736481 255 255 255 255
184.592712 111.652275 266.031860 255 255 255 255
222.701263 106.384346 264.444427 255 255 255 255
401.871124 36.161003 -5.338912 255 255 255 255
418.881775 33.838367 -7.663655 255 255 255 255
-160.895111 108.907875 -6.131692 255 255 255 255
25.269228 132.298553 267.367371 255 255 255 255
340.212097 43.903091 -4.224192 255 255 255 255
365.184235 40.745808 -5.113451 255 255 255 255
-119.485458 103.411667 -5.088563 255 255 255 255
31.919558 131.239334 267.376190 255 255 255 255
83.628204 124.350800 266.818573 255 255 255 255
113.853035 120.482346 266.709259 255 255 255 255
121.755638 119.284195 266.388031 255 255 255 255
411.392853 34.244335 -6.016559 255 255 255 255
75.608574 125.159134 266.801025 255 255 255 255
105.915764 121.222656 266.905823 255 255 255 255
142.220917 116.385757 266.904572 255 255 255 255
211.586273 107.244217 265.384644 255 255 255 255
219.552444 106.122658 264.972992 255 255 255 255
372.094360 38.976971 -5.656611 255 255 255 255
397.571564 35.495369 -6.538220 255 255 255 255
-9.871747 136.067612 267.308807 255 255 255 255
13.712526 133.095200 267.257385 255 255 255 255
96.454857 122.161469 267.349304 255 255 255 255
134.378967 117.241676 266.546417 255 255 255 255
180.060776 111.182152 265.665283 255 255 255 255
-136.217606 104.441483 -5.390549 255 255 255 255
57.966385 126.957054 266.797150 255 255 255 255
156.456116 114.039864 266.087219 255 255 255 255
170.600357 112.102966 266.065521 255 255 255 255
311.429840 46.372231 -4.402472 255 255 255 255
333.732300 43.304623 -5.301152 255 255 255 255
70.930527 125.029320 267.605652 255 255 255 255
101.193497 121.034790 266.907288 255 255 255 255
117.052505 119.075012 266.930664 255 255 255 255
161.189194 112.980690 266.045837 255 255 255 255
206.893280 106.867836 265.270172 255 255 255 255
214.940903 105.821404 264.870697 255 255 255 255
320.315918 44.929916 -3.866372 255 255 255 255
-13.320413 135.668823 266.873688 255 255 255 255
2.037419 133.629929 267.247955 255 255 255 255
8.866096 132.751801 267.418640 255 255 255 255
54.784344 126.607071 266.898926 255 255 255 255
129.755402 116.834808 266.110504 255 255 255 255
145.395721 114.928871 266.772125 255 255 255 255
191.180313 108.880829 265.523560 255 255 255 255
197.417114 107.771935 265.650421 255 255 255 255
307.211060 46.136089 -4.432312 255 255 255 255
351.736450 40.244900 -4.664868 255 255 255 255
-141.206085 103.761322 -6.061353 255 255 255 255
51.563503 126.690552 266.618622 255 255 255 255
61.220203 125.714607 266.629486 255 255 255 255
137.618362 115.994339 267.013458 255 255 255 255
151.786713 113.641586 265.923737 255 255 255 255
167.480209 111.850739 266.179810 255 255 255 255
203.731171 106.736855 265.645233 255 255 255 255
22.160017 130.583344 267.532684 255 255 255 255
45.096741 127.669098 267.449860 255 255 255 255
67.680504 124.570816 266.991119 255 255 255 255
90.117729 121.670609 266.907410 255 255 255 255
187.990677 108.696701 266.050018 255 255 255 255
315.912415 44.552769 -4.054607 255 255 255 255
324.928833 42.907982 -4.570692 255 255 255 255
360.801300 38.369495 -4.944694 255 255 255 255
148.818085 113.485565 266.084015 255 255 255 255
164.427673 111.559982 265.632019 255 255 255 255
-146.141724 103.468941 -6.581676 255 255 255 255
-114.410927 99.428581 -5.385438 255 255 255 255
-18.365095 135.314606 266.597321 255 255 255 255
345.104431 39.765411 -4.855000 255 255 255 255
356.549194 37.902924 -5.914236 255 255 255 255
379.445251 34.821426 -6.062141 255 255 255 255
390.799500 33.398842 -5.416126 255 255 255 255
404.855042 31.672609 -6.092244 255 255 255 255
416.612335 29.977150 -6.667910 255 255 255 255
-158.044296 104.782570 -5.505811 255 255 255 255
-4.637500 133.161804 267.020355 255 255 255 255
64.627975 124.270119 267.098297 255 255 255 255
78.958015 122.263054 266.739685 255 255 255 255
177.101364 109.470039 266.105469 255 255 255 255
222.937653 103.173607 264.804016 255 255 255 255
400.455811 31.501463 -6.798253 255 255 255 255
-128.642365 100.572624 -4.920292 255 255 255 255
17.140327 129.956100 266.686859 255 255 255 255
40.288170 127.189949 267.414948 255 255 255 255
85.392006 121.286423 267.222656 255 255 255 255
114.030060 117.287758 266.761749 255 255 255 255
183.337189 108.398285 266.070007 255 255 255 255
173.987106 109.164963 265.737061 255 255 255 255
-152.933899 102.892540 -5.070186 255 255 255 255
75.870567 122.036888 266.924469 255 255 255 255
126.738121 115.015594 266.327423 255 255 255 255
134.516159 114.051567 266.332092 255 255 255 255
156.678223 111.141998 266.287750 255 255 255 255
302.655487 43.872444 -3.701936 255 255 255 255
-9.642433 132.893723 267.255768 255 255 255 255
5.588986 130.849762 267.530762 255 255 255 255
110.862289 117.097527 266.915466 255 255 255 255
142.459656 113.159088 266.759460 255 255 255 255
194.549881 106.010178 265.560883 255 255 255 255
210.251831 103.965195 265.508911 255 255 255 255
367.941498 34.410141 -5.268082 255 255 255 255
35.373470 126.867111 267.489899 255 255 255 255
58.120018 123.714859 266.737885 255 255 255 255
170.935852 108.980080 266.039032 255 255 255 255
-135.818451 99.988693 -5.014282 255 255 255 255
71.089317 121.726547 267.187897 255 255 255 255
93.525055 118.989990 267.954254 255 255 255 255
101.445786 117.687012 266.615112 255 255 255 255
191.334457 105.790161 265.823975 255 255 255 255
329.833313 38.756008 -5.097447 255 255 255 255
48.458607 124.628494 267.058441 255 255 255 255
106.301216 116.421463 266.157440 255 255 255 255
167.710922 108.719421 266.065979 255 255 255 255
197.626617 104.582138 265.771606 255 255 255 255
316.217621 40.541443 -3.670315 255 255 255 255
363.720245 33.904533 -5.990590 255 255 255 255
412.406097 27.261652 -7.097481 255 255 255 255
23.952650 127.371902 266.803009 255 255 255 255
130.010086 113.546440 266.797516 255 255 255 255
372.793060 32.541603 -4.963823 255 255 255 255
386.134338 31.191307 -3.867207 255 255 255 255
30.556223 126.418137 267.078339 255 255 255 255
336.466431 37.160286 -4.278156 255 255 255 255
347.612152 35.622005 -4.631670 255 255 255 255
-1.063673 130.239212 267.196228 255 255 255 255
88.822273 118.234009 266.767029 255 255 255 255
96.753914 117.360245 266.569366 255 255 255 255
164.687271 108.418968 265.967896 255 255 255 255
178.789536 106.465309 265.765533 255 255 255 255
186.718445 105.433327 265.597534 255 255 255 255
200.899902 103.463356 265.816467 255 255 255 255
393.676086 28.851770 -6.160770 255 255 255 255
416.958862 25.706816 -6.344887 255 255 255 255
-145.368790 99.138458 -5.246400 255 255 255 255
-123.564690 96.701187 -4.225261 255 255 255 255
12.397582 128.099518 267.147980 255 255 255 255
27.339922 126.198135 267.486328 255 255 255 255
64.766205 121.179466 266.685974 255 255 255 255
117.425629 114.299492 266.468079 255 255 255 255
147.366486 110.365456 266.191833 255 255 255 255
215.233948 101.194801 265.521698 255 255 255 255
379.625549 30.655220 -4.743183 255 255 255 255
79.179192 119.062141 266.388245 255 255 255 255
307.609741 39.757702 -4.184546 255 255 255 255
343.367920 35.059082 -5.096424 255 255 255 255
-4.268893 130.116394 267.641998 255 255 255 255
17.388561 126.947372 267.271759 255 255 255 255
55.020668 121.977463 266.829529 255 255 255 255
159.959045 108.094505 266.182983 255 255 255 255
205.744415 102.135422 265.499298 255 255 255 255
-128.799744 95.943062 -6.238871 255 255 255 255
122.179832 113.001099 266.926697 255 255 255 255
136.417801 111.117813 266.551361 255 255 255 255
150.589279 108.967865 266.244507 255 255 255 255
7.449159 127.827850 267.294983 255 255 255 255
112.762253 113.883141 266.596558 255 255 255 255
172.648407 105.944946 266.089294 255 255 255 255
218.469955 99.820976 265.351410 255 255 255 255
224.829498 98.744408 264.794586 255 255 255 255
312.312439 37.961052 -4.373651 255 255 255 255
-112.327438 91.772293 -9.624953 255 255 255 255
43.755497 122.461349 266.224701 255 255 255 255
155.356033 107.823174 266.160553 255 255 255 255
323.481995 36.161972 -4.935377 255 255 255 255
368.650177 29.878923 -6.147520 255 255 255 255
405.742096 24.817989 -7.045133 255 255 255 255
-135.905441 95.219482 -6.936574 255 255 255 255
20.822495 125.446159 267.125977 255 255 255 255
72.895729 118.648674 266.566467 255 255 255 255
101.617409 114.735207 266.788574 255 255 255 255
109.574097 113.694145 266.173157 255 255 255 255
131.718735 110.711533 266.557587 255 255 255 255
139.523895 109.804581 266.532471 255 255 255 255
354.873108 31.475300 -5.045968 255 255 255 255
175.876785 104.609245 265.791077 255 255 255 255
363.631500 30.198109 -3.254914 255 255 255 255
-160.286453 97.874458 -6.805040 255 255 255 255
-116.627495 92.497055 -6.042470 255 255 255 255
2.436638 127.312820 267.205933 255 255 255 255
92.089508 115.477760 266.229462 255 255 255 255
144.368958 108.536911 266.779755 255 255 255 255
190.119995 102.519073 265.538025 255 255 255 255
212.264206 99.447426 265.209991 255 255 255 255
316.788177 35.778469 -4.298674 255 255 255 255
327.790131 34.414604 -4.750506 255 255 255 255
338.923004 33.092537 -3.718914 255 255 255 255
350.497192 31.152803 -5.621732 255 255 255 255
375.600922 28.143921 -5.637111 255 255 255 255
398.500092 24.776508 -5.590022 255 255 255 255
39.013306 122.334991 267.398438 255 255 255 255
61.693806 119.284370 267.067841 255 255 255 255
68.113098 118.282127 266.965515 255 255 255 255
410.018768 23.410261 -4.763753 255 255 255 255
30.727537 123.288643 267.248810 255 255 255 255
164.825027 105.429207 266.452606 255 255 255 255
180.589798 103.440170 266.061096 255 255 255 255
202.647385 100.328430 266.037109 255 255 255 255
384.859253 26.319740 -5.621542 255 255 255 255
-142.552780 95.059212 -4.272595 255 255 255 255
-123.362427 92.362083 -4.601009 255 255 255 255
50.461903 120.145882 267.181702 255 255 255 255
58.475536 119.214058 267.193604 255 255 255 255
97.001633 114.051575 266.467590 255 255 255 255
125.463310 110.333420 266.870575 255 255 255 255
194.989288 101.205444 265.668976 255 255 255 255
209.087830 99.152306 265.392487 255 255 255 255
343.696320 31.004480 -4.706218 255 255 255 255
-155.105377 96.075401 -5.804582 255 255 255 255
-11.028997 127.906761 267.126343 255 255 255 255
12.578753 124.781319 266.858490 255 255 255 255
64.940651 118.067062 266.837067 255 255 255 255
183.861572 102.217949 265.968964 255 255 255 255
391.862579 24.372023 -6.296737 255 255 255 255
168.142334 104.112381 265.577057 255 255 255 255
221.869324 96.883041 264.960052 255 255 255 255
76.286934 115.881516 266.779114 255 255 255 255
106.577431 111.930191 266.772247 255 255 255 255
152.324173 106.191620 266.405914 255 255 255 255
305.856079 35.304050 -3.905263 255 255 255 255
-150.018707 94.168495 -5.284436 255 255 255 255
9.239033 124.564323 266.772858 255 255 255 255
158.665985 104.988289 266.422974 255 255 255 255
172.820847 103.002663 266.279938 255 255 255 255
-7.550195 126.438187 267.051392 255 255 255 255
112.944435 110.847397 266.802917 255 255 255 255
119.287140 109.786072 266.536255 255 255 255 255
312.591492 33.565914 -4.397944 255 255 255 255
133.480545 107.740204 266.216644 255 255 255 255
155.539337 104.792351 266.299225 255 255 255 255
215.512527 96.706718 265.688171 255 255 255 255
321.436432 32.138252 -3.561389 255 255 255 255
332.743195 30.379189 -4.018100 255 255 255 255
-2.396923 125.478897 267.515381 255 255 255 255
87.556610 113.433418 266.868683 255 255 255 255
101.845551 111.608376 267.255493 255 255 255 255
146.112900 105.770378 267.003448 255 255 255 255
161.834518 103.708954 266.178894 255 255 255 255
355.388184 27.166132 -4.888248 255 255 255 255
2.678193 124.376335 267.419189 255 255 255 255
26.021132 121.297310 267.375397 255 255 255 255
34.229988 120.381142 267.266876 255 255 255 255
69.934395 115.422775 266.623688 255 255 255 255
79.548965 114.405380 266.868927 255 255 255 255
401.711884 20.193274 -7.596512 255 255 255 255
413.278168 18.608023 -6.843353 255 255 255 255
47.336510 118.327599 266.970154 255 255 255 255
55.430531 117.283203 266.951294 255 255 255 255
122.422661 108.528091 267.204468 255 255 255 255
128.801727 107.651993 266.943146 255 255 255 255
317.351624 31.461267 -4.610260 255 255 255 255
39.133434 118.996750 266.889587 255 255 255 255
326.085022 29.962297 -4.309083 255 255 255 255
337.305908 28.509998 -4.290837 255 255 255 255
359.960754 25.423700 -4.489552 255 255 255 255
371.439880 23.445467 -5.477141 255 255 255 255
385.064911 22.088516 -5.181322 255 255 255 255
-140.001862 90.670982 -4.987072 255 255 255 255
-120.802673 88.038345 -5.059270 255 255 255 255
82.808182 113.094284 266.999756 255 255 255 255
97.319527 111.197243 267.017334 255 255 255 255
187.122528 99.350449 266.029144 255 255 255 255
195.156372 98.094879 265.296906 255 255 255 255
406.578461 18.310934 -7.226950 255 255 255 255
-132.989136 88.776497 -6.245466 255 255 255 255
21.019857 120.846313 266.840210 255 255 255 255
58.676506 116.142555 267.087402 255 255 255 255
207.818253 95.458458 265.254944 255 255 255 255
223.644974 93.829506 264.893341 255 255 255 255
380.910126 21.613272 -6.091032 255 255 255 255
417.970001 16.778475 -5.729090 255 255 255 255
-165.029053 92.914833 -6.466965 255 255 255 255
12.799442 121.785408 267.257751 255 255 255 255
42.424919 117.895073 267.114166 255 255 255 255
50.619049 116.917801 267.207092 255 255 255 255
109.911911 109.133522 266.936554 255 255 255 255
176.255356 99.901840 265.567352 255 255 255 255
199.854965 96.911438 265.687531 255 255 255 255
366.918243 23.474768 -4.957914 255 255 255 255
389.970673 20.094336 -5.606075 255 255 255 255
-157.431625 91.434799 -6.060887 255 255 255 255
-125.642998 87.411438 -5.435491 255 255 255 255
92.428986 110.855766 267.122772 255 255 255 255
138.420258 104.845634 266.109222 255 255 255 255
190.375992 97.949463 266.105652 255 255 255 255
306.465759 30.803076 -5.079597 255 255 255 255
-5.688262 123.606575 267.319427 255 255 255 255
151.021194 102.881462 266.445496 255 255 255 255
180.964737 98.877602 266.332825 255 255 255 255
204.725830 95.807732 265.654602 255 255 255 255
-149.851578 89.816246 -6.191664 255 255 255 255
16.219267 120.543259 267.371002 255 255 255 255
105.251381 108.649902 266.654358 255 255 255 255
165.207062 100.733932 266.195984 255 255 255 255
211.010849 94.670761 265.529083 255 255 255 255
349.301819 24.242804 -6.496435 255 255 255 255
89.359009 110.528336 266.763123 255 255 255 255
133.719040 104.753120 266.687256 255 255 255 255
395.002869 17.937763 -6.050277 255 255 255 255
6.232615 121.404243 267.848145 255 255 255 255
29.495937 118.370544 267.271851 255 255 255 255
66.877548 113.458801 266.995056 255 255 255 255
74.929390 112.489792 267.172424 255 255 255 255
117.944389 106.187653 266.918060 255 255 255 255
215.829956 93.387733 265.486908 255 255 255 255
310.751312 29.217684 -3.477990 255 255 255 255
344.303711 24.353828 -4.868461 255 255 255 255
-144.998764 88.026611 -6.089428 255 255 255 255
79.724693 111.403542 267.325867 255 255 255 255
124.243668 105.527641 266.617371 255 255 255 255
319.753479 27.426682 -4.361208 255 255 255 255
330.998901 26.100958 -4.487580 255 255 255 255
34.427380 117.249962 267.436432 255 255 255 255
160.592972 100.480049 266.353302 255 255 255 255
339.846222 24.303064 -3.961869 255 255 255 255
401.758392 16.225277 -5.457739 255 255 255 255
-12.368748 122.875267 266.939240 255 255 255 255
2.947706 121.043045 267.442261 255 255 255 255
39.303593 116.241356 267.310913 255 255 255 255
63.718410 113.065399 267.059296 255 255 255 255
144.830017 102.437019 267.160431 255 255 255 255
220.750092 92.037460 264.869965 255 255 255 255
127.463348 104.219574 266.521576 255 255 255 255
157.423294 100.198952 266.323090 255 255 255 255
372.104431 19.092726 -6.251547 255 255 255 255
22.806364 117.729111 266.478790 255 255 255 255
111.563751 106.152557 266.882446 255 255 255 255
201.724564 93.967659 265.795044 255 255 255 255
358.373901 20.632740 -5.401192 255 255 255 255
95.815720 107.883324 266.596771 255 255 255 255
170.087479 98.180984 266.638977 255 255 255 255
208.090515 92.684944 265.248718 255 255 255 255
419.046387 11.793180 -7.955822 255 255 255 255
12.956315 118.603546 267.354370 255 255 255 255
42.624512 115.054184 267.192383 255 255 255 255
184.326996 95.768654 265.833221 255 255 255 255
192.167816 94.806511 265.696747 255 255 255 255
367.471130 18.848404 -5.416292 255 255 255 255
378.804596 17.343681 -5.017791 255 255 255 255
-135.355438 84.228546 -6.703178 255 255 255 255
-115.530716 81.967896 -4.406036 255 255 255 255
-3.801141 120.314468 266.964417 255 255 255 255
100.610405 106.818405 267.072662 255 255 255 255
152.744690 99.869339 266.607025 255 255 255 255
353.957153 20.273258 -5.885211 255 255 255 255
17.996229 117.455231 267.322449 255 255 255 255
47.613094 113.706779 266.581085 255 255 255 255
55.690815 112.422226 267.125122 255 255 255 255
70.231247 110.520027 266.926941 255 255 255 255
114.974030 104.463730 266.544342 255 255 255 255
121.267601 103.576065 266.348419 255 255 255 255
229.573212 89.869995 263.644592 255 255 255 255
362.649200 18.800905 -4.531765 255 255 255 255
385.739471 15.627084 -4.777518 255 255 255 255
397.356842 13.967645 -4.915723 255 255 255 255
411.928101 11.570011 -6.661108 255 255 255 255
75.073807 109.366371 266.467560 255 255 255 255
83.114403 108.409096 266.783081 255 255 255 255
105.441261 105.619041 267.016602 255 255 255 255
-159.525909 86.533325 -6.322264 255 255 255 255
60.575413 111.386215 266.770569 255 255 255 255
133.946167 101.520592 266.537048 255 255 255 255
141.776337 100.709999 267.049438 255 255 255 255
163.890839 97.619102 266.596161 255 255 255 255
179.719315 95.432419 265.697693 255 255 255 255
322.346619 23.298977 -4.221492 255 255 255 255
-142.178146 83.932434 -5.007187 255 255 255 255
-8.864051 120.065727 266.946320 255 255 255 255
-0.356527 119.137093 267.213654 255 255 255 255
87.931488 107.308006 266.962799 255 255 255 255
118.148460 103.470139 266.675018 255 255 255 255
224.082809 89.168266 264.943695 255 255 255 255
308.765381 25.023008 -2.835181 255 255 255 255
333.745605 21.294832 -5.348283 255 255 255 255
-154.195877 85.181839 -4.454634 255 255 255 255
-122.753777 81.155296 -4.927952 255 255 255 255
63.858089 110.090065 266.885315 255 255 255 255
130.829254 101.130859 266.732788 255 255 255 255
146.566696 99.332916 266.558319 255 255 255 255
342.623322 19.923401 -4.664854 255 255 255 255
390.808136 13.390404 -6.049419 255 255 255 255
92.787514 106.029900 266.817352 255 255 255 255
175.072906 95.079994 265.878754 255 255 255 255
205.005432 91.111870 265.920532 255 255 255 255
220.986099 88.833160 264.698090 255 255 255 255
329.189453 21.438223 -4.305116 255 255 255 255
-146.973267 83.426025 -5.422585 255 255 255 255
3.118495 117.910141 267.657074 255 255 255 255
137.198151 100.165398 266.699554 255 255 255 255
167.056976 96.129440 266.478485 255 255 255 255
211.379852 89.934669 265.591003 255 255 255 255
315.887360 22.778761 -4.350373 255 255 255 255
338.276642 19.424017 -5.180304 255 255 255 255
-14.155629 119.600273 266.307465 255 255 255 255
9.785099 116.794319 267.321289 255 255 255 255
31.403587 113.712669 267.377472 255 255 255 255
127.747452 101.082512 266.561218 255 255 255 255
187.591888 92.982162 266.257263 255 255 255 255
195.593781 91.946243 265.639709 255 255 255 255
372.519043 14.688730 -5.170216 255 255 255 255
-130.162003 80.423279 -5.939307 255 255 255 255
208.335541 89.717842 265.623749 255 255 255 255
216.265732 88.664810 265.026489 255 255 255 255
347.710724 17.572193 -5.972929 255 255 255 255
358.626556 16.405994 -4.538924 255 255 255 255
381.844421 12.796544 -6.102119 255 255 255 255
102.465355 103.634499 266.666809 255 255 255 255
110.339088 102.968132 267.384216 255 255 255 255
154.601761 96.705643 266.062714 255 255 255 255
170.289810 94.918465 266.443146 255 255 255 255
405.083038 9.223373 -6.572385 255 255 255 255
-164.317886 84.052147 -6.639041 255 255 255 255
28.138336 113.487244 267.242126 255 255 255 255
36.222248 112.353256 267.202942 255 255 255 255
42.867939 111.560730 266.954834 255 255 255 255
51.001881 110.430717 267.007111 255 255 255 255
80.037666 106.528984 266.469788 255 255 255 255
160.861847 95.800827 266.659729 255 255 255 255
184.503815 92.726791 265.999512 255 255 255 255
198.756882 90.638618 266.194763 255 255 255 255
-3.499900 117.398819 267.480560 255 255 255 255
18.131588 114.172157 266.749268 255 255 255 255
107.243126 102.573303 266.614594 255 255 255 255
54.221352 109.369347 266.973328 255 255 255 255
76.932243 106.345215 267.102844 255 255 255 255
84.932030 105.255440 266.608307 255 255 255 255
398.312042 8.972601 -6.856653 255 255 255 255
24.814415 113.077026 266.717590 255 255 255 255
409.448334 7.822333 -4.967432 255 255 255 255
-139.746017 79.453133 -6.070431 255 255 255 255
-6.907701 117.052132 267.267365 255 255 255 255
14.926387 114.053223 267.428467 255 255 255 255
67.278297 107.148010 267.053345 255 255 255 255
97.736382 103.312088 267.170105 255 255 255 255
178.325912 92.255287 265.703918 255 255 255 255
311.590881 20.685173 -3.500542 255 255 255 255
393.625122 8.994932 -5.989377 255 255 255 255
-151.605957 80.794342 -5.314238 255 255 255 255
4.884938 115.026741 267.137238 255 255 255 255
118.391022 100.267899 266.734283 255 255 255 255
124.744843 99.273216 266.589539 255 255 255 255
332.084351 16.846375 -5.624898 255 255 255 255
-122.643700 76.562645 -5.517697 255 255 255 255
57.697567 108.065735 267.422821 255 255 255 255
138.905762 97.130936 266.389099 255 255 255 255
318.356476 18.697100 -4.004287 255 255 255 255
341.264008 15.086673 -6.417750 255 255 255 255
365.558655 12.542629 -4.164930 255 255 255 255
415.090546 5.217634 -7.329448 255 255 255 255
-10.277271 116.678551 267.197205 255 255 255 255
70.565125 105.985710 266.934937 255 255 255 255
115.296638 99.966759 266.432587 255 255 255 255
145.323288 95.946396 266.395294 255 255 255 255
189.424805 89.981857 266.004486 255 255 255 255
305.247498 20.114191 -4.190525 255 255 255 255
-134.793365 77.551315 -6.248416 255 255 255 255
9.968763 113.531685 267.084229 255 255 255 255
33.156895 110.619019 266.917572 255 255 255 255
39.732594 109.575371 266.759338 255 255 255 255
47.923771 108.923477 267.565796 255 255 255 255
62.542133 106.921997 267.371490 255 255 255 255
135.761383 97.059547 267.061127 255 255 255 255
151.559128 94.931061 266.536926 255 255 255 255
157.953613 93.978477 266.338898 255 255 255 255
172.270691 91.787323 266.044373 255 255 255 255
211.648712 86.772568 265.919525 255 255 255 255
386.496368 8.772051 -5.026148 255 255 255 255
142.110764 95.793205 266.495087 255 255 255 255
325.225525 16.953426 -3.902267 255 255 255 255
89.862984 102.635880 266.726654 255 255 255 255
148.566986 94.787201 266.262146 255 255 255 255
192.689072 88.641922 265.862946 255 255 255 255
345.849976 13.015926 -6.191635 255 255 255 255
21.731133 111.349930 267.212952 255 255 255 255
80.207497 103.478546 267.019226 255 255 255 255
94.697006 101.574394 266.681213 255 255 255 255
131.178879 96.585907 266.304901 255 255 255 255
161.148895 92.648857 266.199097 255 255 255 255
200.729645 87.145378 265.182831 255 255 255 255
207.050568 86.278946 265.354645 255 255 255 255
222.945969 84.357269 264.844086 255 255 255 255
354.735962 11.713582 -5.505473 255 255 255 255
43.036999 108.451744 267.278046 255 255 255 255
377.578796 8.445745 -5.807744 255 255 255 255
-3.380506 114.052246 267.341125 255 255 255 255
26.719624 110.168198 267.206482 255 255 255 255
107.387558 99.611694 267.188110 255 255 255 255
167.428406 91.457176 266.166840 255 255 255 255
181.694427 89.286957 265.742340 255 255 255 255
350.178650 11.702199 -4.305927 255 255 255 255
18.453579 111.023705 267.120209 255 255 255 255
128.065643 96.374809 266.504333 255 255 255 255
410.208099 3.264365 -5.381205 255 255 255 255
52.799473 106.113289 267.025757 255 255 255 255
164.367020 91.268410 266.116913 255 255 255 255
186.531738 88.139404 265.749420 255 255 255 255
359.347504 9.658964 -4.972600 255 255 255 255
373.087463 8.054788 -5.471916 255 255 255 255
382.558502 6.230411 -6.259128 255 255 255 255
-158.859726 77.791962 -5.864369 255 255 255 255
67.514999 103.956100 266.914795 255 255 255 255
74.000526 102.897552 266.893646 255 255 255 255
334.576569 12.913660 -4.628532 255 255 255 255
-119.919609 72.600609 -4.981308 255 255 255 255
57.836544 104.774437 266.515900 255 255 255 255
102.764343 99.037529 267.087128 255 255 255 255
110.686371 97.999985 266.644592 255 255 255 255
366.422150 7.867165 -5.474224 255 255 255 255
391.669556 4.476372 -5.689472 255 255 255 255
417.609772 1.197806 -6.301043 255 255 255 255
-132.078918 73.451294 -6.095632 255 255 255 255
34.939377 107.646790 266.925781 255 255 255 255
86.760033 100.818565 266.654266 255 255 255 255
175.455002 89.002747 266.128052 255 255 255 255
319.120941 13.947844 -5.431891 255 255 255 255
403.529633 2.493721 -6.438211 255 255 255 255
-154.016403 76.138840 -5.689688 255 255 255 255
48.085613 105.469269 266.561188 255 255 255 255
115.485580 96.807220 266.503937 255 255 255 255
143.981232 92.854561 266.384003 255 255 255 255
151.794586 91.878807 266.426758 255 255 255 255
197.596786 85.880608 266.058838 255 255 255 255
211.840317 83.832771 266.211212 255 255 255 255
77.213966 101.665077 266.891266 255 255 255 255
83.676117 100.705612 266.865875 255 255 255 255
136.050705 93.834435 266.548096 255 255 255 255
203.973877 84.734802 265.778442 255 255 255 255
314.453308 14.167918 -3.806761 255 255 255 255
325.695770 12.268862 -5.390540 255 255 255 255
-148.910538 74.565338 -5.553414 255 255 255 255
-127.608673 71.626755 -6.696212 255 255 255 255
98.033905 98.564560 266.428864 255 255 255 255
120.296410 95.719635 266.531952 255 255 255 255
156.615799 90.603729 266.238556 255 255 255 255
218.316635 82.438538 265.605164 255 255 255 255
396.590912 2.432689 -5.619668 255 255 255 255
8.428379 110.248657 266.975922 255 255 255 255
15.155138 109.101303 266.654358 255 255 255 255
44.877525 105.365669 267.266449 255 255 255 255
125.094505 94.560333 266.258148 255 255 255 255
140.741455 92.728561 267.087708 255 255 255 255
170.796997 88.459946 265.917511 255 255 255 255
178.671448 87.558640 266.033417 255 255 255 255
200.903351 84.470535 265.999725 255 255 255 255
345.885345 9.373943 -4.276614 255 255 255 255
94.881462 98.378403 266.676514 255 255 255 255
147.218460 91.463913 266.384460 255 255 255 255
207.339615 83.253555 265.530304 255 255 255 255
215.246994 82.330452 265.366577 255 255 255 255
307.920898 13.681607 -4.238771 255 255 255 255
28.613199 106.830811 266.539734 255 255 255 255
131.361862 93.324089 266.476959 255 255 255 255
167.712997 88.319229 266.333710 255 255 255 255
183.440353 86.474022 266.300110 255 255 255 255
221.583618 81.093246 265.152130 255 255 255 255
-8.223026 111.671700 267.205597 255 255 255 255
11.953013 108.796692 266.983826 255 255 255 255
62.865398 102.196846 267.218506 255 255 255 255
189.838272 85.265068 265.970459 255 255 255 255
339.235046 8.836699 -4.672158 255 255 255 255
353.207458 6.727327 -6.292022 255 255 255 255
387.324402 2.102054 -5.642435 255 255 255 255
3.594095 110.011971 267.943726 255 255 255 255
69.255661 101.048340 267.327209 255 255 255 255
91.720909 98.113922 267.073151 255 255 255 255
303.700806 13.414967 -4.175581 255 255 255 255
104.551804 95.955467 266.778137 255 255 255 255
112.448830 95.091049 266.925720 255 255 255 255
359.553040 5.655081 -4.038535 255 255 255 255
0.252388 109.627907 267.302216 255 255 255 255
162.997009 87.994278 266.203522 255 255 255 255
408.722778 -1.763620 -6.688851 255 255 255 255
-161.170212 73.204872 -5.894804 255 255 255 255
21.951658 106.748627 267.356201 255 255 255 255
51.518433 102.875916 267.265167 255 255 255 255
58.030441 101.706902 267.002167 255 255 255 255
74.109070 99.759689 266.754791 255 255 255 255
109.275085 94.852066 266.861725 255 255 255 255
380.977631 1.467765 -6.892814 255 255 255 255
-141.824341 70.360909 -6.677194 255 255 255 255
101.310394 95.843491 266.919678 255 255 255 255
330.567535 8.263778 -4.666615 255 255 255 255
41.791195 103.440285 266.962769 255 255 255 255
196.340927 82.531837 265.722321 255 255 255 255
413.694031 -3.826079 -6.877760 255 255 255 255
-156.544724 71.350174 -6.909514 255 255 255 255
-124.451508 67.591949 -4.993012 255 255 255 255
-3.125030 109.186592 267.242188 255 255 255 255
25.338055 105.195114 266.812988 255 255 255 255
31.910547 104.343925 267.418854 255 255 255 255
54.839935 101.505089 267.421539 255 255 255 255
120.502960 92.621849 266.473541 255 255 255 255
150.495865 88.652069 266.523926 255 255 255 255
158.370346 87.604752 266.145569 255 255 255 255
172.646194 85.453300 265.803802 255 255 255 255
396.956085 -1.878847 -5.519333 255 255 255 255
83.866364 97.464882 267.094696 255 255 255 255
126.814644 91.440010 266.528412 255 255 255 255
216.998657 79.304947 265.670898 255 255 255 255
224.927536 77.947365 263.990387 255 255 255 255
310.816254 9.110691 -5.982272 255 255 255 255
348.325897 5.177874 -3.105289 255 255 255 255
88.707359 96.405792 267.082062 255 255 255 255
141.091675 89.346138 266.633026 255 255 255 255
321.683289 7.805411 -4.438762 255 255 255 255
369.381531 1.000141 -5.978509 255 255 255 255
-8.054072 108.977676 267.855743 255 255 255 255
36.904888 103.017403 267.405182 255 255 255 255
66.153473 99.106567 266.918976 255 255 255 255
191.587921 82.129494 265.533264 255 255 255 255
306.242767 9.142790 -4.363214 255 255 255 255
355.729736 2.674284 -5.661521 255 255 255 255
79.096519 97.028236 266.770630 255 255 255 255
93.474754 95.174927 267.066101 255 255 255 255
115.762802 92.068924 266.387848 255 255 255 255
317.497864 7.368481 -4.793072 255 255 255 255
341.905731 4.622077 -4.079811 255 255 255 255
5.500134 106.911392 267.752197 255 255 255 255
71.095505 97.980560 267.011261 255 255 255 255
136.427612 89.077515 267.002899 255 255 255 255
362.651794 0.888321 -5.681210 255 255 255 255
374.297089 -0.749660 -5.974661 255 255 255 255
402.108582 -4.393240 -6.855003 255 255 255 255
180.550430 83.134895 266.410767 255 255 255 255
188.532867 82.059273 266.138519 255 255 255 255
202.746765 79.986008 266.235779 255 255 255 255
-136.362152 66.548943 -4.939963 255 255 255 255
10.520487 105.698059 267.744904 255 255 255 255
17.138824 104.551521 267.284241 255 255 255 255
96.649857 93.782951 266.907013 255 255 255 255
104.685822 92.737297 266.419952 255 255 255 255
209.230087 78.640205 265.626099 255 255 255 255
383.377533 -2.420238 -5.359259 255 255 255 255
45.246677 100.548645 267.074280 255 255 255 255
59.806950 98.588326 267.102264 255 255 255 255
74.367218 96.617157 266.797729 255 255 255 255
155.399078 85.846230 266.317780 255 255 255 255
163.232208 84.951149 266.854431 255 255 255 255
185.391266 81.732246 265.836029 255 255 255 255
333.156403 3.870835 -4.775976 255 255 255 255
22.101942 103.454704 267.217651 255 255 255 255
123.845680 89.639030 266.466736 255 255 255 255
145.902771 86.739616 266.550354 255 255 255 255
175.902054 82.767586 266.526703 255 255 255 255
-150.859634 67.492767 -5.104620 255 255 255 255
-131.594543 64.775688 -5.410447 255 255 255 255
50.084244 99.775612 267.278015 255 255 255 255
130.180939 88.583549 266.362671 255 255 255 255
198.121048 79.440765 265.758423 255 255 255 255
326.764618 3.586029 -5.176482 255 255 255 255
378.725952 -3.226381 -6.436430 255 255 255 255
390.467316 -4.529559 -5.227738 255 255 255 255
-163.081512 68.615852 -5.189980 255 255 255 255
-3.017999 105.942703 266.601166 255 255 255 255
41.998398 100.260956 267.026459 255 255 255 255
150.720596 85.357376 266.253662 255 255 255 255
166.430481 83.506271 266.226624 255 255 255 255
212.490234 77.202499 265.479706 255 255 255 255
220.413132 76.233849 265.363434 255 255 255 255
338.030457 1.933260 -5.336429 255 255 255 255
-146.050659 65.671539 -5.585179 255 255 255 255
349.307983 0.235271 -5.221726 255 255 255 255
-126.565193 63.167484 -5.159950 255 255 255 255
82.481125 94.439575 267.092773 255 255 255 255
112.759499 90.397766 267.170685 255 255 255 255
127.015717 88.275993 266.440155 255 255 255 255
171.317780 82.302124 266.357208 255 255 255 255
217.346985 75.858711 265.115875 255 255 255 255
37.074802 100.060631 267.565125 255 255 255 255
117.479485 89.154861 266.662689 255 255 255 255
133.390823 87.222275 266.670044 255 255 255 255
223.749939 74.720657 264.835571 255 255 255 255
309.006439 4.623149 -4.949332 255 255 255 255
320.082153 3.402520 -4.522328 255 255 255 255
344.948395 -0.101665 -5.555182 255 255 255 255
-119.042122 61.898346 -3.401721 255 255 255 255
13.944628 102.831589 267.513428 255 255 255 255
367.636658 -3.271834 -5.666839 255 255 255 255
27.238008 100.756432 267.174042 255 255 255 255
85.693008 93.080833 267.288269 255 255 255 255
190.348801 78.921265 266.046173 255 255 255 255
206.200958 76.755859 265.647736 255 255 255 255
63.195866 95.790146 266.500366 255 255 255 255
77.685730 93.730751 266.402832 255 255 255 255
108.084610 89.973511 266.925049 255 255 255 255
136.626434 86.037773 266.688019 255 255 255 255
-11.334219 105.407547 267.099213 255 255 255 255
18.996750 101.534264 267.238373 255 255 255 255
55.092571 96.694527 267.259613 255 255 255 255
90.597855 91.758133 266.854248 255 255 255 255
180.787979 79.941437 266.554962 255 255 255 255
195.064758 77.757736 266.240509 255 255 255 255
202.964981 76.785965 266.263153 255 255 255 255
374.843750 -5.409952 -5.836015 255 255 255 255
68.076759 94.596848 267.033081 255 255 255 255
98.504494 90.649506 266.703766 255 255 255 255
187.200348 78.525032 265.988556 255 255 255 255
209.486755 75.483788 265.568939 255 255 255 255
313.572113 2.685473 -5.037683 255 255 255 255
333.599335 -0.233044 -4.249966 255 255 255 255
-157.874802 64.805161 -4.673479 255 255 255 255
-138.765533 61.828777 -5.706859 255 255 255 255
-6.231364 104.143898 266.814178 255 255 255 255
0.585877 103.162300 266.857452 255 255 255 255
9.011868 102.207260 267.260345 255 255 255 255
30.598434 99.300476 266.952393 255 255 255 255
51.916321 96.355667 266.782013 255 255 255 255
103.405487 89.656631 266.885193 255 255 255 255
139.885208 84.513474 266.231110 255 255 255 255
147.768951 83.596062 266.352570 255 255 255 255
184.059067 78.472855 265.738525 255 255 255 255
383.900116 -7.037670 -5.807373 255 255 255 255
124.066040 86.434143 266.501831 255 255 255 255
154.064026 82.512596 266.180847 255 255 255 255
354.199890 -3.917811 -5.336600 255 255 255 255
42.164558 97.118736 267.143311 255 255 255 255
130.381836 85.548050 267.101624 255 255 255 255
174.709320 79.146629 265.711578 255 255 255 255
114.594872 87.377876 266.842651 255 255 255 255
158.812668 81.294464 266.065247 255 255 255 255
326.960419 -0.581204 -3.966008 255 255 255 255
363.250641 -5.648578 -5.090440 255 255 255 255
-123.886703 58.848457 -4.870433 255 255 255 255
143.120071 83.233658 266.535980 255 255 255 255
171.556381 79.060524 265.852875 255 255 255 255
24.201883 99.678299 268.397461 255 255 255 255
47.083729 95.916954 267.081665 255 255 255 255
119.370277 86.123856 266.788513 255 255 255 255
163.606171 80.143944 266.543640 255 255 255 255
359.148407 -6.253788 -6.189588 255 255 255 255
-128.975540 58.295582 -5.913702 255 255 255 255
72.986305 91.828270 266.899841 255 255 255 255
87.499374 89.821732 266.699829 255 255 255 255
168.431244 78.812080 265.819763 255 255 255 255
214.366058 72.644218 265.412384 255 255 255 255
307.087677 0.240527 -4.949398 255 255 255 255
368.240631 -7.823557 -5.632886 255 255 255 255
93.873032 88.848915 266.676331 255 255 255 255
204.936676 73.591515 265.492828 255 255 255 255
220.817596 71.449112 265.235168 255 255 255 255
340.916962 -4.700025 -5.111544 255 255 255 255
-143.713120 58.926601 -7.438312 255 255 255 255
5.901607 100.300072 267.296112 255 255 255 255
19.239174 98.360527 267.405853 255 255 255 255
34.019642 96.489258 267.054535 255 255 255 255
151.117172 80.510254 266.050842 255 255 255 255
316.032013 -1.373481 -4.363232 255 255 255 255
127.392006 83.725761 266.829926 255 255 255 255
336.245911 -4.706862 -4.454756 255 255 255 255
-116.702835 55.020752 -5.195089 255 255 255 255
-4.350419 101.036781 267.039459 255 255 255 255
39.064861 95.373428 267.243073 255 255 255 255
53.662277 93.430260 267.118256 255 255 255 255
111.469879 85.464340 266.796204 255 255 255 255
155.886536 79.583664 266.684937 255 255 255 255
185.909256 75.437813 265.795410 255 255 255 255
193.856049 74.406906 266.056763 255 255 255 255
209.717667 72.277855 265.514954 255 255 255 255
322.640259 -2.921127 -3.182784 255 255 255 255
347.539368 -6.313807 -4.061805 255 255 255 255
15.848347 98.005898 266.933868 255 255 255 255
30.825264 96.108032 266.992706 255 255 255 255
60.163601 92.270714 266.845520 255 255 255 255
66.608574 91.240257 266.808167 255 255 255 255
81.080322 89.309998 266.648743 255 255 255 255
103.599869 86.379662 266.794647 255 255 255 255
140.100784 81.361992 265.996277 255 255 255 255
177.987488 76.386009 266.131073 255 255 255 255
-7.752305 100.917473 267.126984 255 255 255 255
198.558624 73.295265 266.258911 255 255 255 255
-14.884139 101.735664 266.348663 255 255 255 255
-0.889044 99.757156 267.153107 255 255 255 255
57.056732 92.081589 267.639801 255 255 255 255
108.350822 85.418678 267.194885 255 255 255 255
144.769348 80.417809 266.911438 255 255 255 255
159.077682 78.286568 266.322388 255 255 255 255
48.808659 92.685951 266.627167 255 255 255 255
63.505264 91.072693 267.233704 255 255 255 255
70.015358 90.011101 267.348145 255 255 255 255
77.949577 88.996117 266.656799 255 255 255 255
136.928070 81.236656 266.766876 255 255 255 255
189.065704 74.174080 266.282349 255 255 255 255
327.555878 -5.206933 -4.784850 255 255 255 255
-123.994179 54.226551 -5.717049 255 255 255 255
98.806572 86.064163 267.163971 255 255 255 255
217.722931 69.822388 265.848999 255 255 255 255
303.048248 -2.377516 -4.847157 255 255 255 255
360.924744 -9.281043 -2.849800 255 255 255 255
-155.742264 57.803909 -6.825322 255 255 255 255
-135.845810 55.383007 -5.386438 255 255 255 255
89.266533 86.826370 266.873657 255 255 255 255
162.269806 76.990860 266.606476 255 255 255 255
222.692673 68.504982 264.993378 255 255 255 255
354.851257 -10.075165 -4.884246 255 255 255 255
44.072201 92.623108 267.442352 255 255 255 255
73.272690 88.619247 266.914642 255 255 255 255
130.684479 80.638634 266.282867 255 255 255 255
168.595383 75.707611 266.258331 255 255 255 255
5.895235 97.257866 267.344055 255 255 255 255
27.646172 94.389786 267.459564 255 255 255 255
86.150261 86.573219 266.793945 255 255 255 255
94.146103 85.584869 266.617920 255 255 255 255
114.807228 82.675499 266.731354 255 255 255 255
205.154236 70.377457 265.631500 255 255 255 255
316.653076 -5.706756 -4.310828 255 255 255 255
341.211029 -9.103397 -5.006925 255 255 255 255
-130.800537 53.605865 -4.752039 255 255 255 255
12.733394 96.207932 267.501892 255 255 255 255
121.183670 81.489700 267.103180 255 255 255 255
173.490265 74.416382 265.907227 255 255 255 255
181.323822 73.461815 265.844757 255 255 255 255
211.534134 69.272972 265.619293 255 255 255 255
-143.145813 54.600544 -6.299742 255 255 255 255
-10.955449 98.907784 267.091400 255 255 255 255
32.626888 93.113022 267.358551 255 255 255 255
82.987625 86.353256 266.570099 255 255 255 255
149.729019 77.449799 266.244110 255 255 255 255
336.754120 -9.034115 -4.198853 255 255 255 255
2.709413 97.051559 267.337860 255 255 255 255
53.849560 90.066322 266.659454 255 255 255 255
60.419041 89.095535 267.165161 255 255 255 255
125.996803 80.276482 266.501526 255 255 255 255
140.310959 78.433334 266.888000 255 255 255 255
178.180222 73.389397 266.464417 255 255 255 255
194.155396 71.228172 266.133484 255 255 255 255
9.360473 95.890022 267.428619 255 255 255 255
37.465164 91.831886 266.495544 255 255 255 255
102.293358 83.287903 266.856964 255 255 255 255
110.129868 82.321274 267.070953 255 255 255 255
118.073669 81.408546 267.094574 255 255 255 255
184.568680 72.171318 266.092194 255 255 255 255
309.945068 -6.106075 -3.845435 255 255 255 255
-147.985901 54.288975 -5.453932 255 255 255 255
22.664949 93.784515 267.173492 255 255 255 255
152.992599 76.154724 266.453857 255 255 255 255
50.735737 89.817940 267.051758 255 255 255 255
65.303406 87.788239 266.889160 255 255 255 255
197.252960 69.968712 266.169800 255 255 255 255
305.532806 -6.223368 -3.726471 255 255 255 255
70.196648 86.970078 267.344147 255 255 255 255
98.904732 82.813805 266.852295 255 255 255 255
143.596268 76.791283 265.931610 255 255 255 255
165.677856 73.902412 265.929352 255 255 255 255
219.671646 66.678993 265.408203 255 255 255 255
40.880989 90.718216 267.294983 255 255 255 255
47.563984 89.846619 267.565155 255 255 255 255
187.814545 70.790817 266.152954 255 255 255 255
325.418121 -9.432615 -3.010849 255 255 255 255
134.024582 77.845924 266.644287 255 255 255 255
156.206161 74.906387 266.754242 255 255 255 255
202.097183 68.705223 266.145325 255 255 255 255
224.432816 65.221283 264.395905 255 255 255 255
-5.747133 96.140800 267.056549 255 255 255 255
214.944611 66.284409 265.396881 255 255 255 255
332.235077 -10.443941 -2.653996 255 255 255 255
94.319023 82.450897 266.756073 255 255 255 255
123.009628 78.487122 266.600494 255 255 255 255
-0.743152 94.641129 266.838837 255 255 255 255
27.840467 91.243919 267.521149 255 255 255 255
86.299805 83.288261 266.396057 255 255 255 255
107.137993 80.396286 266.618774 255 255 255 255
316.850098 -10.143453 -3.808917 255 255 255 255
210.258957 65.881386 265.385284 255 255 255 255
-123.638893 47.419212 -6.228224 255 255 255 255
11.070932 92.504997 266.649292 255 255 255 255
91.152969 82.192871 266.780457 255 255 255 255
312.508148 -10.256711 -3.827392 255 255 255 255
17.935736 91.827614 267.368225 255 255 255 255
53.990211 86.955193 266.727173 255 255 255 255
75.104698 84.137428 267.083862 255 255 255 255
103.922569 80.154350 266.800262 255 255 255 255
148.393509 74.203209 266.671021 255 255 255 255
170.574432 70.832924 265.716583 255 255 255 255
178.458405 70.040443 265.935913 255 255 255 255
-145.319077 50.136772 -5.699934 255 255 255 255
-135.709274 48.641762 -5.900153 255 255 255 255
-12.470771 95.674171 267.026672 255 255 255 255
110.328812 78.935844 266.595947 255 255 255 255
-128.350296 47.215733 -6.073679 255 255 255 255
7.991500 92.653152 267.755157 255 255 255 255
36.170406 88.766747 267.497467 255 255 255 255
57.345432 85.786438 267.141266 255 255 255 255
65.500015 84.830742 267.007690 255 255 255 255
